ply
format ascii 1.0
element vertex 728
property float x
property float y
property float z
property float nx
property float ny
property float nz
property uchar red
property uchar green
property uchar blue
end_header
-2.22316 3.22691 3.5325 -0.123219 -0.948127 -0.293041 204 210 203
-2.21264 3.22745 3.52657 0.226661 -0.689448 -0.687958 169 175 170
-2.20596 3.22154 3.53395 0.25886 -0.955149 0.143813 207 213 206
-2.20634 3.22278 3.52376 0.0471795 -0.964693 -0.259116 170 175 170
-2.19493 3.21867 3.52506 0.0500451 -0.998344 -0.0283777 194 199 193
-2.18773 3.22174 3.53163 0.376208 -0.871001 0.315952 207 212 205
-2.18914 3.22303 3.54182 0.0390431 -0.964172 0.262388 188 198 188
-2.17699 3.2214 3.54376 0.251012 -0.941445 0.225109 161 172 161
-2.17808 3.22028 3.53223 0.129554 -0.981754 -0.139192 213 217 210
-2.16832 3.22344 3.55096 0.0838404 -0.99434 -0.0652532 144 154 144
-2.16881 3.22252 3.53957 0.00782169 -0.999969 -0.00131097 210 215 208
-2.15554 3.21919 3.54059 0.0550695 -0.986856 0.151932 223 226 219
-2.14539 3.21944 3.54211 0.183964 -0.95008 0.252004 220 222 216
-2.15143 3.22743 3.55943 0.291682 -0.796299 -0.529933 215 219 213
-2.11243 3.21861 3.56354 -0.17519 -0.983972 -0.0332783 198 205 199
-2.08602 3.2194 3.57519 0.441559 -0.858314 0.261386 146 161 146
-2.06055 3.23099 3.58795 -0.322136 -0.942521 -0.088779 150 164 151
-2.02798 3.20991 3.58306 0.329214 -0.943478 0.0383004 197 204 141
-2.01838 3.21047 3.57888 -0.183356 -0.983043 0.00255007 232 230 208
-2.00816 3.21181 3.59027 0.581384 -0.813012 0.0316881 224 224 221
-2.00008 3.20985 3.58399 0.552841 -0.833276 0.00423139 227 226 222
-1.98912 3.20407 3.59355 -0.462186 -0.810457 -0.359922 231 232 229
-1.97917 3.20543 3.59904 -0.48365 -0.768535 -0.418851 230 231 228
-1.9686 3.20619 3.59515 0.227921 -0.922795 -0.310647 233 233 229
-1.96927 3.21018 3.60795 -0.311445 -0.946051 -0.0893877 229 228 225
-1.95071 3.20799 3.60636 0.712407 -0.694398 0.101432 227 216 212
-1.93853 3.20388 3.60789 0.0281643 -0.972704 -0.230332 241 240 235
-1.92954 3.20224 3.61265 0.138792 -0.958791 -0.247903 243 242 235
-1.92025 3.20649 3.60945 0.174447 -0.960361 -0.217429 230 230 202
-1.90964 3.20782 3.62556 0.0590251 -0.987153 -0.148474 111 115 75
-1.83677 3.21867 3.65608 0.458351 -0.884232 -0.0897057 71 76 80
-1.82568 3.20441 3.64355 -0.0353011 -0.988297 0.148401 74 78 82
-1.82145 3.20045 3.65071 0.0368823 -0.992977 0.11241 76 83 85
-1.81499 3.20586 3.65014 0.0735516 -0.975834 0.205761 73 78 81
-1.80797 3.194 3.64448 0.139054 -0.984479 0.107073 72 78 80
-1.80551 3.21008 3.65593 0.471512 -0.872666 -0.127006 73 78 81
-1.80414 3.21085 3.66905 0.00619468 -0.984372 0.175994 98 109 108
-1.79674 3.21406 3.66236 0.476723 -0.863629 -0.163952 72 79 81
-1.79447 3.21363 3.67507 0.385674 -0.844439 -0.371723 114 127 125
-1.78544 3.2145 3.67013 -0.101213 -0.956028 -0.275256 89 98 99
-1.7735 3.21753 3.67912 0.424969 -0.538267 -0.727784 112 124 122
-1.76481 3.20799 3.67441 0.0991368 -0.985475 0.137884 114 128 125
-1.75229 3.21813 3.68734 0.42657 -0.724249 -0.541757 125 141 136
-1.73423 3.21611 3.68743 -0.309896 -0.917142 -0.250628 146 161 155
-1.73575 3.20997 3.69265 -0.326675 -0.74302 -0.584128 156 173 164
-1.73352 3.2146 3.69831 0.566571 -0.721778 -0.397534 152 171 162
-1.72559 3.20654 3.68838 -0.510336 -0.629897 -0.58548 160 176 168
-1.70477 3.20975 3.69662 0.465847 -0.871339 -0.154127 140 159 149
-1.69947 3.20784 3.6985 0.423617 -0.855081 -0.298974 135 154 144
-1.68583 3.21006 3.70993 0.0472793 -0.995049 -0.0874228 144 164 153
-1.65169 3.20795 3.70994 -0.080972 -0.947281 -0.310002 116 138 125
-1.66026 3.20657 3.7146 -0.0836253 -0.936817 -0.339676 132 153 140
-1.63944 3.20716 3.71342 0.156557 -0.984443 -0.0797627 123 145 131
-1.62556 3.19806 3.71734 0.174518 -0.957743 -0.228629 153 170 157
-1.61995 3.19457 3.70689 0.359395 -0.909995 -0.206745 183 197 185
-1.61902 3.19355 3.71896 0.416921 -0.843995 -0.337415 160 176 163
-1.59451 3.19961 3.7261 0.197473 -0.953205 -0.22892 157 172 158
-1.59088 3.19946 3.72868 0.316945 -0.929371 -0.189248 160 173 159
-1.57375 3.19521 3.72431 -0.34511 -0.932471 -0.106755 170 183 170
-1.56137 3.20149 3.74516 -0.00847968 -0.984753 -0.173751 198 207 193
-1.54259 3.20052 3.74503 0.0147922 -0.962388 -0.271277 154 153 135
-1.52247 3.19903 3.75481 0.351579 -0.925888 -0.138289 99 100 96
-1.49179 3.18516 3.74196 -0.351303 -0.934559 0.056441 234 237 235
-1.47812 3.18252 3.74564 -0.184977 -0.967079 -0.174763 133 136 137
-1.4673 3.1781 3.74602 -0.296886 -0.940109 -0.167493 50 52 57
-1.47218 3.1798 3.75647 -0.485131 -0.873319 0.044286 52 56 59
-1.46428 3.17643 3.75133 -0.0662217 -0.988291 -0.137464 55 58 62
-1.45208 3.17755 3.75918 -0.0214595 -0.974535 -0.223205 160 163 164
-1.44379 3.17749 3.75273 0.0869779 -0.989854 -0.112357 217 220 221
-1.44225 3.17789 3.76436 0.0575654 -0.989895 -0.129596 204 207 207
-1.43886 3.17318 3.75258 -0.131422 -0.991252 -0.0121888 208 211 211
-1.42064 3.17574 3.76203 -0.331907 -0.926076 -0.179502 231 234 233
-1.41059 3.17329 3.76841 -0.411832 -0.872808 -0.261917 215 218 215
-1.40239 3.17221 3.76436 -0.538617 -0.816435 -0.208146 179 181 178
-1.34762 3.22965 3.85572 0.494115 -0.590406 -0.638178 175 173 163
-1.34102 3.23556 3.8649 0.389252 -0.891537 -0.231613 179 177 166
-1.33047 3.23561 3.86962 0.274819 -0.949423 -0.151891 181 180 169
-1.32502 3.23664 3.86566 0.0272524 -0.996206 -0.0826444 180 179 168
-1.31857 3.23887 3.87513 0.34855 -0.884133 -0.311161 183 181 171
-1.31686 3.23189 3.85847 0.307846 -0.951087 -0.0257769 179 178 167
-1.3041 3.22971 3.86811 0.0901707 -0.990992 -0.0990196 179 178 168
-1.21982 3.23397 3.90839 0.288961 -0.893012 -0.34501 179 179 169
-1.21176 3.22679 3.89723 -0.191544 -0.896318 -0.399907 182 181 171
-1.20097 3.22748 3.90378 0.0706098 -0.783161 -0.617797 179 178 168
-1.19641 3.22902 3.9098 -0.101727 -0.981282 0.163519 170 170 161
-1.18987 3.22883 3.91109 0.0679449 -0.750549 -0.657313 171 170 160
-1.18775 3.22908 3.90342 -0.441281 -0.891562 0.101923 177 178 168
-1.16637 3.22576 3.91252 0.062764 -0.929786 -0.362711 168 166 156
-1.15545 3.23443 3.92759 -0.456723 -0.878109 -0.142582 160 160 150
-1.11072 3.23045 3.9359 -0.150819 -0.930114 -0.334874 177 175 165
-1.12107 3.23166 3.94289 -0.161222 -0.941868 -0.294776 184 182 172
-1.0997 3.2238 3.93764 0.492603 -0.618547 -0.612162 184 181 172
-1.09116 3.22418 3.9445 0.0543544 -0.939737 -0.337549 181 180 170
-1.08114 3.22306 3.9353 0.0305514 -0.885028 -0.464534 181 180 170
-1.07053 3.22086 3.93733 0.196957 -0.721309 -0.664019 182 180 171
-1.06249 3.2239 3.94514 0.296586 -0.928772 -0.222305 181 180 170
-1.05436 3.22748 3.95327 -0.40978 -0.90968 0.0675445 177 177 169
-1.05281 3.22415 3.94979 0.206889 -0.975031 -0.0806984 181 179 170
-1.01836 3.22492 3.96809 0.23428 -0.951752 -0.198193 177 176 167
-1.00863 3.22621 3.97437 0.319165 -0.920696 -0.224615 153 152 143
-1.00854 3.2231 3.973 -0.54703 -0.814597 -0.192847 152 151 143
-1.00637 3.22328 3.96506 -0.129121 -0.963557 -0.234275 157 156 148
-0.988826 3.21303 3.95696 -0.430604 -0.891552 -0.14041 173 172 165
-0.996292 3.2232 3.97247 0.13503 -0.970695 -0.198791 177 176 167
-0.999441 3.22683 3.98199 -0.335043 -0.893012 -0.300459 177 176 168
-0.987276 3.22328 3.97441 0.0906073 -0.936286 -0.339349 175 173 165
-0.926949 3.22126 3.99967 -0.012311 -0.999429 0.0314719 166 166 159
-0.89207 3.21965 4.00774 0.704283 -0.700307 -0.116427 147 145 139
-0.876061 3.22066 4.01429 0.145875 -0.972983 -0.178953 137 137 131
-0.866151 3.21746 4.01728 -0.609163 -0.763468 -0.214564 114 114 112
-2.4869 3.22598 3.41818 -0.0841748 -0.971884 0.219899 136 143 137
-2.41549 3.22771 3.44311 0.477087 -0.818647 0.319695 126 121 96
-2.34621 3.23124 3.47444 0.0665996 -0.996387 -0.0527053 94 113 100
-2.3339 3.22868 3.47722 0.249034 -0.956389 -0.152648 98 117 102
-2.32196 3.23059 3.48539 0.246313 -0.964136 -0.098849 109 120 110
-2.29583 3.22213 3.47661 0.401938 -0.912508 -0.0759929 95 99 94
-2.29171 3.22838 3.4876 0.529384 -0.845477 -0.0701536 109 115 109
-2.28561 3.24279 3.5054 0.392712 -0.90909 -0.139039 166 176 168
-2.29382 3.24153 3.50061 0.476653 -0.864868 -0.157493 127 133 127
-2.27604 3.23002 3.50344 0.0963351 -0.920735 -0.37811 167 180 173
-2.25945 3.24165 3.50879 -0.158433 -0.741493 -0.651988 171 185 177
-2.26387 3.23609 3.51029 -0.115386 -0.643662 -0.756562 161 175 167
-2.24885 3.23281 3.50764 -0.29508 -0.764489 -0.573136 163 177 169
-2.25606 3.23201 3.51247 -0.117231 -0.635998 -0.762734 147 159 152
-2.23965 3.232 3.51265 0.272688 -0.874306 -0.401535 143 156 149
-2.23096 3.23165 3.51805 0.232553 -0.886872 -0.399221 117 127 121
-2.22254 3.23053 3.52304 0.131104 -0.886076 -0.444613 121 129 123
-2.2074 3.22414 3.51225 0.0351385 -0.877056 -0.4791 126 137 130
-2.21032 3.22881 3.51544 -0.0332566 -0.934006 -0.355707 129 139 133
-2.21466 3.23141 3.5178 0.0472067 -0.943194 -0.328871 123 133 127
-2.19063 3.22894 3.52524 0.318165 -0.909212 -0.268521 135 143 137
-2.19455 3.22118 3.51447 0.326503 -0.930261 -0.167363 121 130 124
-2.18136 3.22653 3.52924 0.0274159 -0.941283 -0.336504 171 177 171
-2.16902 3.22296 3.52882 0.357448 -0.925255 -0.127021 185 189 183
-2.15891 3.22412 3.53531 0.24189 -0.964653 -0.104566 207 209 203
-2.08634 3.21682 3.55491 -0.552075 -0.694133 -0.461944 154 165 155
-2.09318 3.22282 3.55526 -0.196694 -0.976097 -0.0924481 190 197 191
-2.07801 3.22043 3.5515 -0.0219471 -0.911542 -0.41062 130 141 131
-2.0781 3.21763 3.56119 0.529614 -0.811228 0.247825 137 151 138
-2.06051 3.2321 3.57752 -0.0503837 -0.942939 -0.329132 141 156 142
-2.02785 3.21232 3.57336 0.315187 -0.947482 0.0541685 162 169 109
-2.02937 3.21191 3.57018 -0.35743 -0.893992 -0.270227 125 132 77
-2.02149 3.21143 3.56527 0.373292 -0.892207 -0.254203 167 170 106
-2.01469 3.21022 3.56783 -0.301288 -0.946474 -0.115817 221 220 164
-2.00817 3.21476 3.58098 -0.210656 -0.920624 -0.328749 231 228 217
-2 3.21443 3.57567 0.52666 -0.81074 -0.255598 238 232 189
-1.98872 3.20452 3.56944 0.0581592 -0.981285 -0.18357 239 233 199
-1.98827 3.20369 3.58057 0.424242 -0.887673 -0.179038 228 228 224
-1.97692 3.21203 3.58013 -0.191793 -0.981427 -0.00409806 237 234 219
-1.97917 3.20764 3.58783 0.360757 -0.915039 -0.180438 227 228 223
-1.96747 3.21018 3.58569 0.338415 -0.921276 -0.191641 235 234 230
-1.96627 3.21594 3.58939 0.104496 -0.807108 -0.581083 236 235 230
-1.95798 3.2121 3.593 0.508495 -0.842614 -0.177299 245 243 237
-1.94107 3.21248 3.5928 0.216789 -0.975992 -0.0210472 226 225 221
-1.93786 3.20468 3.59668 -0.382449 -0.903658 -0.192704 219 217 215
-1.92938 3.20641 3.60367 -0.00228492 -0.980428 -0.196864 238 238 233
-1.92037 3.20795 3.59851 0.320514 -0.910599 -0.260921 235 234 214
-1.91147 3.20852 3.6041 0.399548 -0.905812 -0.14095 191 196 120
-1.90072 3.21328 3.61529 0.307254 -0.936597 -0.16847 76 80 63
-1.87639 3.21617 3.63383 0.525925 -0.544456 -0.65343 74 79 83
-1.85097 3.22141 3.64317 0.443094 -0.833307 -0.330555 70 75 80
-1.85097 3.22141 3.64317 0.443094 -0.833307 -0.330555 69 74 79
-1.81176 3.18803 3.62596 -0.151606 -0.986858 0.0559225 74 79 84
-1.80194 3.18872 3.62243 -0.323431 -0.937103 -0.131267 75 79 84
-1.78112 3.18854 3.62745 -0.360337 -0.910002 -0.205071 74 78 83
-1.78281 3.21392 3.65479 -0.0141976 -0.773421 -0.633734 73 78 83
-1.76605 3.20968 3.66131 0.467515 -0.674107 -0.571847 74 81 84
-1.7709 3.21476 3.65864 0.507638 -0.718093 -0.476074 73 78 82
-1.77108 3.2145 3.65855 0.495047 -0.73498 -0.463392 73 78 82
-1.75492 3.21688 3.67401 0.43499 -0.798113 -0.416892 77 87 87
-1.75693 3.21634 3.67274 0.558568 -0.749408 -0.355512 73 82 82
-1.74248 3.2207 3.6836 -0.0860713 -0.945347 -0.314501 113 125 123
-1.73537 3.21867 3.67614 0.414564 -0.878149 -0.23873 76 85 85
-1.72521 3.2153 3.68214 0.0496575 -0.579526 -0.813439 136 148 144
-1.71634 3.2113 3.68544 -0.597838 -0.625626 -0.50118 166 180 173
-1.7013 3.20447 3.68574 0.488448 -0.80931 -0.326245 141 159 150
-1.68873 3.21261 3.68683 0.337988 -0.895723 -0.288868 148 163 156
-1.6546 3.20935 3.7003 -0.0105402 -0.971861 -0.235319 148 167 155
-1.6398 3.20821 3.70176 0.202013 -0.978303 -0.045979 150 168 155
-1.60443 3.19529 3.70596 0.0264049 -0.986355 -0.162503 131 149 137
-1.53668 3.20126 3.73045 -0.0283732 -0.967622 -0.250804 169 166 146
-1.5215 3.20166 3.74408 0.403282 -0.835691 -0.372806 166 167 160
-1.50532 3.19781 3.74334 -0.349549 -0.721052 -0.598246 167 171 165
-1.4545 3.17775 3.74627 -0.0860216 -0.988297 -0.125975 151 154 156
-1.45587 3.1779 3.73392 -0.529233 -0.823024 -0.206261 146 148 149
-1.44353 3.17885 3.74186 0.0773282 -0.985662 -0.149972 216 219 220
-1.44689 3.1731 3.73455 -0.558347 -0.804763 -0.201508 221 223 224
-1.41933 3.17927 3.75308 -0.467967 -0.850126 -0.241439 233 236 235
-1.41083 3.17473 3.74536 -0.325551 -0.924451 -0.198512 220 223 221
-1.41078 3.17302 3.75616 -0.455772 -0.876439 -0.155328 214 217 215
-1.34733 3.23661 3.8485 0.0168572 -0.830477 -0.556797 169 167 157
-1.32749 3.23201 3.8539 0.215987 -0.97596 0.0291804 179 177 167
-1.32776 3.23206 3.84133 0.0885392 -0.97198 0.217751 164 162 152
-1.31442 3.23756 3.85972 0.0212299 -0.992874 -0.117263 177 176 166
-1.32014 3.23753 3.85191 -0.0677633 -0.948688 -0.308866 173 171 161
-1.30526 3.23613 3.85219 -0.0197338 -0.736456 -0.676198 172 170 160
-1.30174 3.23384 3.85874 0.171842 -0.792631 -0.584984 176 175 165
-1.2971 3.22696 3.85807 0.0211489 -0.728611 -0.684601 176 175 165
-1.28944 3.22891 3.853 0.265011 -0.75702 -0.597234 174 172 162
-1.2943 3.23032 3.86221 -0.00905541 -0.729023 -0.68443 176 175 165
-1.28904 3.23015 3.85478 0.266449 -0.856379 -0.44229 174 172 162
-1.28331 3.23098 3.86105 0.63153 -0.775346 -0.00309145 178 175 164
-1.22616 3.22863 3.88429 0.363753 -0.905178 -0.219855 179 178 169
-1.2111 3.23905 3.89329 0.481857 -0.299849 -0.823349 180 180 171
-1.20254 3.23127 3.89394 -0.0788829 -0.707691 -0.702105 180 179 169
-1.1938 3.22807 3.89802 0.102316 -0.761268 -0.640314 180 179 169
-1.19435 3.23074 3.88739 0.0523871 -0.806005 -0.589586 177 177 168
-1.15279 3.23769 3.91917 -0.495499 -0.857019 -0.14142 173 173 163
-1.14995 3.23368 3.91935 -0.707162 -0.689964 -0.154507 165 165 156
-1.14447 3.23255 3.91049 -0.636149 -0.765439 -0.0970424 177 177 167
-1.13154 3.23832 3.92394 -0.264198 -0.946801 -0.183759 163 161 151
-1.11878 3.23132 3.92941 -0.192111 -0.947735 -0.254739 159 157 147
-1.11137 3.23531 3.92649 0.0898917 -0.995447 -0.0317087 167 165 155
-1.0895 3.22539 3.93192 0.472913 -0.511816 -0.717215 176 174 164
-1.06249 3.22373 3.93357 -0.0764599 -0.273989 -0.958689 179 178 168
-1.05414 3.22918 3.94188 0.140988 -0.987854 0.0653271 182 180 171
-1.0438 3.22899 3.94639 0.0560944 -0.98895 0.13723 180 179 169
-1.04264 3.22915 3.94676 0.116116 -0.983903 0.135839 181 180 170
-1.03411 3.23124 3.95279 -0.144957 -0.988123 0.0510014 181 180 170
-1.02765 3.22625 3.95319 0.390848 -0.920011 -0.0285843 181 179 170
-1.01821 3.22886 3.95864 0.26148 -0.942886 -0.206384 179 178 169
-1.00636 3.22645 3.95428 -0.0987049 -0.95645 -0.274703 156 155 146
-0.997049 3.21817 3.95473 -0.610545 -0.739452 -0.283629 175 174 166
-0.991341 3.21846 3.94725 -0.141218 -0.938664 -0.31459 176 175 167
-0.991267 3.21891 3.94789 -0.0857182 -0.965593 -0.245527 176 176 167
-0.988897 3.21379 3.95761 -0.429497 -0.878703 -0.208356 174 173 165
-0.967737 3.22639 3.96828 -0.171347 -0.98155 0.0848471 171 170 163
-0.965496 3.22433 3.96622 0.0618563 -0.982535 0.175496 173 172 163
-0.911199 3.2288 3.99088 -0.511253 -0.859077 0.0246309 169 168 162
-2.39487 3.22568 3.43635 0.480235 -0.816925 0.319389 93 84 81
-2.39487 3.22568 3.43635 0.480235 -0.816925 0.319389 90 81 78
-2.39487 3.22568 3.43635 0.480235 -0.816925 0.319389 90 81 78
-2.36226 3.22809 3.45238 -0.0522525 -0.998626 -0.00391808 117 95 77
-2.34422 3.22408 3.45357 0.0927671 -0.993182 0.0705981 166 167 158
-2.34801 3.23412 3.46475 -0.0767193 -0.851523 -0.518674 173 177 171
-2.32903 3.23191 3.46653 0.382238 -0.782884 -0.490904 91 97 91
-2.29144 3.22646 3.46849 0.141681 -0.969577 0.199616 105 108 102
-2.27715 3.22986 3.48255 0.891716 -0.451162 -0.0359965 139 148 141
-2.27137 3.22941 3.48791 0.663602 -0.742785 -0.0888995 157 170 163
-2.26422 3.24181 3.50354 0.520289 -0.788151 -0.328812 169 183 174
-2.25612 3.23903 3.50671 -0.118003 -0.638939 -0.760153 170 184 176
-2.2594 3.23695 3.4962 0.704863 -0.69708 0.131331 160 177 167
-2.24712 3.24032 3.50192 -0.00165045 -0.942457 -0.334324 163 177 169
-2.23792 3.234 3.50166 -0.473836 -0.708539 -0.522927 156 172 163
-2.22919 3.2373 3.5101 -0.362079 -0.809079 -0.462916 153 167 160
-2.22157 3.23389 3.5136 -0.22877 -0.886953 -0.401222 144 156 148
-2.22209 3.23834 3.50578 0.206353 -0.838581 -0.504183 155 167 159
-2.21481 3.23537 3.50962 0.253374 -0.867724 -0.427617 164 176 168
-2.19923 3.22938 3.50824 -0.204619 -0.790231 -0.577638 170 181 173
-2.18813 3.22874 3.5122 0.0398408 -0.764758 -0.643084 147 158 150
-2.18113 3.23292 3.51964 0.402388 -0.792029 -0.4591 127 139 130
-2.17215 3.23084 3.52411 0.142929 -0.850768 -0.505733 102 111 104
-2.16048 3.22857 3.52506 0.087854 -0.863305 -0.496976 94 103 96
-2.14464 3.23204 3.52807 0.217622 -0.956482 0.194379 97 107 100
-2.14713 3.23047 3.52723 0.511097 -0.842862 0.168413 98 108 101
-2.13019 3.22264 3.52539 0.451989 -0.63491 -0.626574 131 137 132
-2.12385 3.22315 3.52465 0.104131 -0.800203 -0.59062 133 139 133
-2.11873 3.22562 3.5327 0.0347921 -0.894608 -0.445495 183 187 181
-2.11031 3.22377 3.53726 -0.0239227 -0.968908 -0.246264 175 178 173
-2.08617 3.21868 3.54464 -0.0632183 -0.975564 -0.210425 173 180 173
-2.08622 3.21938 3.53389 0.551616 -0.788276 -0.272656 170 175 168
-2.06583 3.2283 3.56188 0.333197 -0.942032 -0.0394356 128 142 130
-2.03672 3.22591 3.57208 -0.307917 -0.88075 -0.359813 69 77 66
-2.02884 3.22516 3.56699 -0.551668 -0.819243 -0.156537 74 78 64
-2.01978 3.21852 3.55797 0.0244462 -0.966847 -0.254185 75 76 63
-2.01137 3.21283 3.55751 -0.20471 -0.894684 -0.397032 100 98 57
-2.01385 3.21556 3.55962 -0.346984 -0.923388 -0.164188 100 99 58
-2.01267 3.21459 3.56037 0.112372 -0.971433 -0.209021 112 110 61
-2.00189 3.20742 3.55307 -0.294709 -0.884638 -0.361334 103 101 50
-2.00487 3.21527 3.56516 0.131852 -0.924227 -0.358356 164 162 75
-1.99553 3.21131 3.56866 0.133061 -0.985453 -0.105721 227 221 135
-1.98481 3.21389 3.57603 0.198037 -0.923097 -0.329657 237 232 177
-1.97426 3.21731 3.57248 -0.213771 -0.976488 -0.0278078 223 217 80
-1.95057 3.21341 3.57638 0.216776 -0.576046 -0.788149 237 230 127
-1.96126 3.20836 3.57877 0.0305906 -0.892702 -0.449608 242 239 216
-1.94917 3.21657 3.5898 -0.0391059 -0.771153 -0.635448 241 239 229
-1.94438 3.20611 3.57746 0.192728 -0.980974 0.0233546 240 234 200
-1.92925 3.2105 3.59447 0.0832781 -0.969431 -0.230798 225 224 221
-1.92024 3.21206 3.58931 0.185056 -0.899956 -0.394757 234 230 203
-1.91178 3.20802 3.59262 -0.537398 -0.775417 -0.331561 178 181 133
-1.90388 3.2042 3.59354 -0.568157 -0.790867 -0.227436 93 96 73
-1.89517 3.20668 3.59841 -0.0340742 -0.986812 -0.158243 74 76 63
-1.86634 3.22192 3.62505 0.261611 -0.868137 -0.421779 76 80 84
-1.78609 3.18854 3.61827 -0.36003 -0.910009 -0.205579 74 77 83
-1.7769 3.19175 3.62754 -0.359104 -0.91239 -0.196441 74 77 83
-1.77446 3.2206 3.65508 0.525315 -0.696709 -0.488509 72 77 81
-1.766 3.21648 3.65378 0.481122 -0.656815 -0.580617 72 77 82
-1.75796 3.21652 3.66056 0.455265 -0.659964 -0.597647 72 77 81
-1.7425 3.22389 3.67385 0.571533 -0.699575 -0.428888 70 76 78
-1.74188 3.21321 3.66121 0.426954 -0.885358 -0.183986 71 75 79
-1.73784 3.21054 3.65036 0.433541 -0.87944 -0.196539 72 76 80
-1.73801 3.22445 3.66903 0.572438 -0.699641 -0.427572 72 77 80
-1.71735 3.21074 3.66673 -0.0469615 -0.978099 -0.202773 78 86 87
-1.70624 3.20761 3.66371 0.0923639 -0.878031 -0.469606 76 84 84
-1.71635 3.21967 3.67945 -0.616258 -0.613131 -0.494264 101 111 110
-1.6962 3.21975 3.68499 -0.191108 -0.963017 0.189939 130 143 138
-1.69295 3.21205 3.67251 -0.357966 -0.922981 -0.141302 86 95 94
-1.68268 3.20816 3.67703 -0.190312 -0.972278 -0.135855 126 139 133
-1.64545 3.2102 3.69507 -0.0470122 -0.969382 -0.241014 155 172 159
-1.64134 3.21371 3.69445 -0.415223 -0.857121 -0.304851 159 175 162
-1.63393 3.20933 3.69872 0.172044 -0.985088 -0.00145426 152 168 155
-1.52645 3.20473 3.72397 -0.113972 -0.986573 -0.116975 178 182 163
-1.52387 3.20163 3.73269 0.346647 -0.936783 0.0476682 177 174 157
-1.4979 3.1984 3.73796 -0.390578 -0.77313 -0.499719 147 152 144
-1.50224 3.19806 3.73112 -0.507571 -0.528239 -0.680687 163 168 158
-1.49162 3.19043 3.71947 -0.0769426 -0.970708 -0.22761 156 163 149
-1.48825 3.19829 3.73208 -0.287449 -0.866504 -0.408098 142 147 139
-1.46497 3.18093 3.73208 -0.222339 -0.962196 -0.157303 60 62 65
-1.45937 3.18142 3.72431 0.235395 -0.953214 -0.189662 116 118 118
-1.45032 3.17759 3.72561 -0.519742 -0.837754 -0.16744 211 213 213
-1.43488 3.17937 3.73525 0.0920098 -0.991832 -0.0883315 207 210 209
-1.42735 3.18563 3.74988 -0.119826 -0.962068 -0.245084 212 215 214
-1.42309 3.18441 3.74389 -0.282361 -0.933922 -0.219229 233 236 235
-1.41494 3.17842 3.7356 -0.42103 -0.887658 -0.186539 235 238 236
-1.40411 3.17481 3.73776 -0.533923 -0.821977 -0.198194 197 200 197
-1.3299 3.24621 3.84108 0.117967 -0.987045 -0.108752 174 172 162
-1.32545 3.23694 3.84017 -0.21884 -0.808956 -0.545618 158 156 146
-1.31349 3.24086 3.84921 0.0894739 -0.879014 -0.468327 160 159 149
-1.31728 3.24675 3.84564 -0.531451 -0.833046 -0.153604 158 158 148
-1.30757 3.23276 3.84367 0.464252 -0.781554 -0.416707 161 160 149
-1.29285 3.23823 3.85559 0.157506 -0.79599 -0.584458 170 169 158
-1.2894 3.23582 3.84605 0.219841 -0.894517 -0.389242 158 156 146
-1.27948 3.2367 3.85281 0.300937 -0.839161 -0.45304 169 167 157
-1.26011 3.22863 3.85113 -0.76943 -0.563628 -0.3005 140 140 132
-1.15368 3.23703 3.90601 -0.478478 -0.877114 -0.0415996 180 180 171
-1.14446 3.23478 3.89947 -0.228191 -0.954475 -0.192109 181 181 171
-1.13521 3.23123 3.90429 -0.21293 -0.951779 -0.220857 155 154 145
-1.12697 3.23054 3.8972 -0.278354 -0.928345 -0.246361 163 162 153
-1.11821 3.22612 3.90141 -0.249989 -0.934518 -0.25334 179 178 169
-1.12098 3.23642 3.91687 -0.162972 -0.964587 -0.207393 182 180 170
-1.11306 3.23874 3.91585 -0.0701455 -0.983475 -0.166905 181 179 169
-1.10012 3.23644 3.91997 0.590887 -0.646588 -0.482469 182 179 170
-1.06963 3.23086 3.93203 0.199728 -0.612977 -0.76444 162 160 151
-1.06135 3.23396 3.92452 -0.143594 -0.986131 0.0832284 171 170 161
-1.05233 3.22959 3.92773 -0.220593 -0.766959 -0.602588 159 157 148
-1.0429 3.2252 3.93058 0.057174 -0.944466 -0.323596 166 164 155
-1.03421 3.23165 3.93883 0.0266038 -0.960594 -0.276678 170 168 159
-1.03292 3.22736 3.93898 0.00960552 -0.988302 -0.152204 179 177 168
-1.02524 3.23275 3.94468 0.281788 -0.928483 -0.241899 178 176 167
-1.0167 3.23307 3.94862 0.189357 -0.972635 -0.134628 176 175 166
-1.01673 3.23271 3.94977 0.245476 -0.957798 -0.14955 177 176 167
-0.996684 3.22677 3.94833 -0.154132 -0.915588 -0.371404 176 175 167
-0.987065 3.22639 3.95541 0.310459 -0.928082 -0.205618 178 176 168
-0.978434 3.22688 3.94768 -0.20251 -0.94488 -0.257278 179 177 168
-0.969312 3.21958 3.94923 -0.0824048 -0.604787 -0.792112 176 175 166
-0.970328 3.21793 3.94058 -0.0663 -0.986001 0.152991 176 175 167
-0.956374 3.22254 3.96075 -0.036513 -0.986109 0.162036 173 172 165
-0.899514 3.22821 3.98635 -0.291948 -0.95307 -0.0801491 167 166 160
-0.891118 3.22314 3.98756 0.072081 -0.976665 -0.202313 153 152 147
-0.877969 3.22416 3.9855 0.065348 -0.983181 -0.170542 127 126 122
-2.40269 3.21213 3.39531 0.02112 -0.991515 -0.128269 110 108 103
-2.39251 3.21438 3.41454 0.0713044 -0.984398 0.16086 119 116 111
-2.3896 3.20839 3.39836 0.111295 -0.981079 0.158422 93 91 88
-2.37419 3.20656 3.39869 0.163285 -0.962814 0.215237 118 116 110
-2.37417 3.20938 3.41127 0.167458 -0.961657 0.217195 119 117 112
-2.38213 3.21617 3.42047 0.0823918 -0.982295 0.16825 117 114 106
-2.36988 3.21613 3.4242 0.137232 -0.970085 0.200255 117 110 103
-2.3684 3.22635 3.43405 0.51949 -0.793894 0.31601 108 101 95
-2.33904 3.22971 3.4369 0.0156166 -0.991749 0.127241 117 116 113
-2.33352 3.2384 3.45146 0.0194905 -0.948375 -0.316551 119 120 118
-2.32733 3.23946 3.45831 0.0657966 -0.859031 -0.507678 95 95 92
-2.28589 3.21182 3.44382 0.246504 -0.925236 0.288399 103 105 99
-2.27828 3.22562 3.45881 0.251845 -0.924826 0.285082 113 116 110
-2.27828 3.22563 3.45877 0.241746 -0.926586 0.288092 113 116 110
-2.2783 3.22569 3.45879 0.247012 -0.924886 0.289088 113 116 110
-2.26794 3.23306 3.47498 -0.00192621 -0.834731 -0.550654 155 166 158
-2.26867 3.2406 3.48567 0.410279 -0.909295 -0.0696607 161 175 165
-2.26861 3.24053 3.48563 0.4071 -0.91126 -0.0622452 161 175 165
-2.25596 3.24164 3.49423 0.0777088 -0.936721 -0.341343 159 176 166
-2.24569 3.23524 3.47923 -0.261453 -0.958089 -0.117078 160 174 163
-2.2136 3.24243 3.50241 0.0381554 -0.955964 -0.290995 166 177 168
-2.20276 3.23937 3.50448 0.121755 -0.87358 -0.471206 171 181 173
-2.19674 3.23651 3.50043 0.0841053 -0.995811 -0.0358853 167 177 168
-2.18486 3.23698 3.50227 0.42288 -0.890306 -0.168905 162 174 164
-2.17218 3.23596 3.51557 0.111527 -0.857261 -0.502658 149 164 154
-2.16503 3.22823 3.50913 -0.121298 -0.797816 -0.590573 147 161 151
-2.16572 3.23886 3.51249 -0.0194632 -0.890948 -0.453689 156 171 160
-2.16265 3.23642 3.51874 -0.254454 -0.92213 -0.291427 132 146 137
-2.1628 3.23333 3.51963 -0.177542 -0.972213 -0.152581 110 123 114
-2.15351 3.23433 3.5124 0.291998 -0.955188 -0.0485108 152 168 157
-2.1569 3.23635 3.51717 -0.123191 -0.699825 -0.703612 141 156 146
-2.15519 3.236 3.52441 -0.170725 -0.983031 -0.0671097 94 107 99
-2.14694 3.23588 3.51982 -0.125879 -0.779498 -0.613626 128 142 132
-2.13879 3.2319 3.52254 0.494947 -0.807961 -0.31973 97 109 100
-2.13007 3.22896 3.51775 0.0654357 -0.741249 -0.668032 106 117 109
-2.12161 3.22629 3.52201 0.0367483 -0.826712 -0.561424 99 104 98
-2.11681 3.22887 3.52274 -0.183266 -0.824173 -0.535866 125 127 120
-2.11366 3.2265 3.5156 -0.524965 -0.744172 -0.413061 117 112 101
-2.11206 3.22638 3.52823 0.221096 -0.975119 0.0161072 171 174 167
-2.10362 3.22499 3.51943 -0.265653 -0.957099 0.115717 190 187 177
-2.10163 3.22407 3.53191 0.183281 -0.838134 -0.51375 172 175 168
-2.07517 3.228 3.54491 0.297236 -0.703473 -0.645582 134 143 134
-2.06593 3.23053 3.55146 0.359627 -0.909496 -0.208532 132 143 133
-2.05453 3.22504 3.54019 -0.293848 -0.923971 -0.244809 116 125 119
-2.0542 3.23799 3.55156 -0.462646 -0.857096 -0.226594 128 138 131
-2.05066 3.23715 3.55141 -0.581484 -0.791055 -0.190022 113 122 118
-2.0544 3.23514 3.56066 0.155602 -0.962082 -0.224023 128 138 130
-2.04683 3.22547 3.53967 -0.186678 -0.950733 -0.247504 76 83 82
-2.01828 3.21806 3.55547 0.295155 -0.881245 -0.369176 71 73 65
-2.02028 3.22299 3.55791 -0.589025 -0.656801 -0.470811 68 71 68
-2.02358 3.22429 3.55475 0.604903 -0.719321 -0.341571 67 71 72
-1.99216 3.21763 3.56241 0.153924 -0.960666 -0.231147 110 107 41
-1.98412 3.21827 3.55608 -0.271639 -0.959106 -0.0795504 71 69 52
-1.98389 3.21821 3.55574 -0.283552 -0.954767 -0.0895467 70 69 53
-1.9829 3.21796 3.56772 0.159521 -0.966963 -0.198835 172 165 46
-1.97501 3.21802 3.56086 -0.270257 -0.95975 -0.0764236 98 94 40
-1.96098 3.21131 3.55723 0.598611 -0.679283 -0.424546 104 97 36
-1.94961 3.20429 3.56384 0.227326 -0.907218 -0.353946 232 224 64
-1.93949 3.20616 3.55837 0.595697 -0.764241 0.247144 200 193 25
-1.93683 3.21136 3.57464 0.257623 -0.954678 -0.149066 235 228 73
-1.92546 3.21358 3.58169 0.154254 -0.921374 -0.356757 229 224 140
-1.91732 3.21653 3.57691 0.220348 -0.904662 -0.364738 200 201 58
-1.91692 3.21634 3.57703 0.192258 -0.919937 -0.34169 198 199 59
-1.91169 3.21325 3.58388 -0.522699 -0.751571 -0.4024 170 172 105
-1.89819 3.20949 3.58909 0.16297 -0.976051 -0.144102 79 82 54
-1.89427 3.22147 3.59112 0.503432 -0.846942 -0.171012 71 74 75
-1.8671 3.22009 3.61237 0.463876 -0.673944 -0.574995 75 79 84
-1.86235 3.21844 3.60874 0.133117 -0.984012 -0.11832 75 80 84
-1.85856 3.22851 3.62396 0.201519 -0.942021 -0.268303 74 79 83
-1.76888 3.21087 3.63444 -0.357298 -0.930109 0.0850588 70 76 81
-1.74157 3.216 3.65079 0.511977 -0.819085 -0.258806 71 75 80
-1.74143 3.21615 3.65086 0.521698 -0.807534 -0.275175 71 75 80
-1.72896 3.21388 3.65703 0.504071 -0.837458 -0.211131 73 77 81
-1.72889 3.2124 3.6431 0.550251 -0.764078 -0.336761 72 76 81
-1.71709 3.21599 3.66037 0.461838 -0.844656 -0.270668 72 76 80
-1.67021 3.21464 3.67202 0.151707 -0.966218 -0.208344 133 146 137
-1.64539 3.21059 3.68319 0.510197 -0.819214 -0.261894 158 176 160
-1.6343 3.2133 3.68026 0.217501 -0.958309 -0.185303 165 183 165
-1.60308 3.21119 3.69039 -0.123539 -0.930765 -0.344115 163 176 161
-1.59574 3.20915 3.6947 -0.0462708 -0.981493 -0.185824 149 165 149
-1.58499 3.20701 3.69846 0.0783369 -0.975921 -0.203572 145 162 146
-1.59232 3.20246 3.69037 -0.409687 -0.873562 -0.262765 145 161 145
-1.51382 3.20002 3.7099 -0.280506 -0.95972 0.0159539 180 189 172
-1.51004 3.20755 3.72615 0.121386 -0.949186 -0.290363 179 187 168
-1.49605 3.20068 3.72731 -0.461553 -0.619585 -0.634888 163 171 158
-1.49054 3.18948 3.70658 0.343252 -0.917509 0.200887 163 173 153
-1.48011 3.19086 3.71107 0.381096 -0.922074 -0.0674196 154 162 146
-1.4451 3.18511 3.72371 0.236058 -0.957802 -0.163988 210 213 209
-1.42307 3.18682 3.73352 -0.275402 -0.934646 -0.224924 236 238 236
-1.40665 3.1803 3.72978 -0.00170502 -0.962473 -0.271372 214 217 213
-1.40117 3.18074 3.73079 0.0135069 -0.960192 -0.279015 194 196 192
-1.39854 3.17357 3.72886 -0.534892 -0.821566 -0.197281 174 176 172
-1.34838 3.24765 3.82012 -0.466716 -0.732919 -0.494981 180 177 168
-1.34933 3.23759 3.81928 -0.160101 -0.975616 0.150135 178 177 167
-1.33879 3.24656 3.82558 0.037793 -0.96386 -0.263715 183 181 171
-1.32902 3.24203 3.83011 -0.0726435 -0.994495 -0.0755158 186 184 174
-1.31326 3.24633 3.84014 -0.583926 -0.767834 -0.263557 173 173 163
-1.29818 3.23961 3.82936 -0.136643 -0.981268 -0.135804 182 180 170
-1.2824 3.24866 3.84434 -0.355643 -0.842941 -0.403695 182 179 168
-1.28491 3.24408 3.83904 -0.156848 -0.986938 -0.0367638 180 178 168
-1.27946 3.24097 3.84308 0.0512169 -0.948211 -0.313484 166 164 154
-1.27519 3.24195 3.84622 -0.772382 -0.523289 -0.359993 156 156 147
-1.25516 3.23365 3.83831 -0.317902 -0.923848 -0.213175 137 137 128
-1.25474 3.23176 3.84947 -0.371001 -0.899292 -0.231585 142 142 134
-1.24279 3.23406 3.84688 0.0557835 -0.978483 -0.198644 160 159 150
-1.23647 3.24169 3.8617 0.146194 -0.930656 -0.335421 179 176 166
-1.22023 3.24003 3.87088 -0.112148 -0.992304 0.0524986 181 179 169
-1.19822 3.23949 3.87492 -0.355845 -0.934532 -0.00503218 178 177 167
-1.18817 3.23601 3.86902 -0.354511 -0.935042 0.00433615 178 177 168
-1.17504 3.24052 3.88323 0.265924 -0.963621 -0.0268196 182 180 170
-1.15605 3.23705 3.8813 -0.0402537 -0.970543 -0.237541 181 179 169
-1.15306 3.23943 3.89537 -0.347823 -0.927334 -0.138095 181 180 170
-1.14392 3.23797 3.88929 -0.288619 -0.931712 -0.220483 181 181 171
-1.13491 3.23378 3.89384 -0.188576 -0.962145 -0.196765 158 158 148
-1.13683 3.23367 3.89177 -0.0829128 -0.97874 -0.1876 166 165 155
-1.12691 3.23322 3.88652 -0.257447 -0.938744 -0.229087 161 160 150
-1.11806 3.22906 3.89088 -0.344311 -0.921905 -0.177597 180 179 169
-1.10202 3.23738 3.90869 0.168936 -0.948514 -0.267922 182 180 170
-1.09089 3.24035 3.91764 0.266187 -0.733524 -0.625369 181 178 169
-1.07078 3.22996 3.90304 0.130275 -0.602272 -0.78759 177 175 166
-1.05341 3.23232 3.91694 -0.108905 -0.971892 0.208723 177 175 167
-1.04285 3.22949 3.92054 -0.0624339 -0.770284 -0.634637 174 172 164
-1.03291 3.23114 3.9285 -0.0215013 -0.766164 -0.642285 164 162 154
-1.02529 3.23535 3.93412 0.253003 -0.937567 -0.238659 164 162 153
-1.01622 3.23586 3.93787 0.093306 -0.971864 -0.216274 160 158 150
-1.01677 3.23534 3.93922 0.19107 -0.970083 -0.149773 160 158 150
-1.00736 3.23393 3.93028 0.0521204 -0.920879 -0.386349 152 151 142
-1.00623 3.23621 3.94427 0.307837 -0.949436 -0.0617072 149 147 139
-0.99675 3.23019 3.93767 -0.0387506 -0.974603 -0.220563 156 155 147
-0.987324 3.2279 3.94311 -0.0332584 -0.887694 -0.459232 175 173 165
-0.959956 3.22796 3.94959 -0.179478 -0.981232 0.0705126 175 175 166
-0.948378 3.2269 3.94433 0.304034 -0.936218 0.176236 168 167 159
-0.926077 3.22864 3.96006 0.283765 -0.95529 -0.0830603 175 176 169
-0.914328 3.22747 3.96853 -0.371151 -0.927853 0.0365472 173 174 168
-0.903269 3.23229 3.97514 -0.335766 -0.940682 0.048764 171 172 165
-0.892821 3.23023 3.96678 -0.602905 -0.782714 -0.154482 167 167 162
-0.898772 3.23101 3.9757 -0.326197 -0.930918 -0.164278 170 171 164
-0.882517 3.2276 3.97012 -0.0628655 -0.955449 -0.288383 129 129 124
-0.8885 3.22829 3.97897 -0.49394 -0.850721 -0.179714 152 151 145
-2.49355 3.23732 3.38839 -0.169818 -0.733429 -0.658212 84 86 85
-2.49282 3.24722 3.38969 -0.377349 -0.900201 -0.217363 78 82 80
-2.44819 3.23363 3.39812 -0.131612 -0.990074 0.0493021 105 104 101
-2.35281 3.21096 3.40935 0.541709 -0.825415 0.158879 95 92 89
-2.33406 3.23422 3.43391 -0.203874 -0.978868 -0.015895 111 111 108
-2.32911 3.23153 3.43027 -0.00634652 -0.982602 0.185617 110 109 106
-2.32472 3.23587 3.44257 -0.104538 -0.994315 0.0202289 110 109 107
-2.32414 3.2337 3.44254 0.239848 -0.929204 0.281165 108 108 105
-2.27363 3.21252 3.43592 0.252723 -0.924179 0.286399 116 117 112
-2.27363 3.21252 3.43592 0.252729 -0.924207 0.286302 119 120 115
-2.27368 3.21261 3.43601 0.248644 -0.924303 0.289552 120 122 116
-2.26137 3.21762 3.44186 0.256054 -0.922768 0.287986 125 130 123
-2.26137 3.21762 3.44186 0.256054 -0.922768 0.287986 127 133 125
-2.26138 3.21764 3.44188 0.254825 -0.923488 0.286765 127 133 125
-2.27588 3.23469 3.46068 0.0108418 -0.98477 -0.173526 128 132 125
-2.26881 3.23936 3.46755 0.401406 -0.90592 0.134837 152 161 153
-2.25749 3.24276 3.47832 0.364307 -0.924701 0.110494 161 174 164
-2.24115 3.23052 3.4647 -0.295743 -0.955262 0.00308976 170 180 170
-2.19225 3.20694 3.45585 -0.0160521 -0.971288 0.237365 164 176 165
-2.19611 3.20631 3.45375 -0.207391 -0.973181 0.0995342 167 180 169
-2.19154 3.2116 3.46706 -0.263414 -0.959483 -0.10003 159 170 160
-2.18679 3.21776 3.46971 -0.251339 -0.962426 -0.102784 158 169 158
-2.18481 3.24144 3.49433 0.457348 -0.866657 -0.199343 157 169 157
-2.16964 3.21857 3.4738 -0.370235 -0.88422 -0.284747 157 168 156
-2.17051 3.22531 3.48975 0.106868 -0.994172 -0.0142165 150 163 152
-2.17282 3.23941 3.50687 0.50123 -0.856463 -0.123451 152 167 156
-2.16129 3.23745 3.50824 0.427253 -0.880259 -0.206396 159 175 164
-2.14507 3.21322 3.47793 -0.167077 -0.985801 0.0168132 158 173 160
-2.1439 3.23868 3.50682 0.355667 -0.929358 0.0989672 158 174 162
-2.13771 3.23611 3.51424 0.436615 -0.875432 -0.207329 156 170 159
-2.12101 3.23136 3.51319 0.0901291 -0.811788 -0.576954 120 126 116
-2.11342 3.23276 3.50796 -0.538968 -0.635002 -0.553431 143 146 133
-2.10935 3.23056 3.51843 0.441274 -0.868198 -0.226958 132 127 116
-2.10974 3.23521 3.51585 -0.381444 -0.749586 -0.540945 124 115 100
-2.09155 3.22752 3.51794 -0.0906565 -0.989121 -0.115848 158 150 136
-2.05468 3.23927 3.54113 -0.325246 -0.923446 -0.203623 121 129 125
-2.05528 3.2345 3.53619 -0.449536 -0.866555 -0.216793 127 135 131
-2.04603 3.22524 3.5338 0.301805 -0.893152 -0.333456 76 84 81
-2.03758 3.22515 3.53418 0.0888121 -0.9447 -0.315681 65 70 71
-2.03479 3.22386 3.53448 0.0201809 -0.972791 -0.230805 65 71 72
-2.03287 3.22267 3.53877 0.235591 -0.934562 -0.266628 66 72 72
-1.99245 3.22046 3.55045 -0.296532 -0.947299 -0.121216 62 65 66
-1.99165 3.22282 3.54234 0.544363 -0.724208 -0.42331 60 64 67
-1.98412 3.21914 3.54547 -0.275792 -0.957776 -0.0812689 63 66 68
-1.9841 3.22277 3.54742 0.394748 -0.875002 -0.28026 61 65 67
-1.97952 3.22204 3.55477 -0.286228 -0.953225 -0.0971402 65 66 63
-1.95997 3.21693 3.54853 0.268629 -0.900246 -0.342629 65 66 67
-1.94521 3.20544 3.55238 0.0603675 -0.981497 -0.181715 127 121 35
-1.92631 3.21639 3.57106 0.216255 -0.897911 -0.383394 220 217 29
-1.91784 3.21982 3.56674 0.365352 -0.83602 -0.409375 155 154 56
-1.90886 3.21987 3.57245 0.299918 -0.895986 -0.327503 97 99 46
-1.90804 3.22052 3.57321 0.563237 -0.706444 -0.428603 91 93 41
-1.90217 3.22157 3.58194 0.481659 -0.827411 -0.288784 71 73 54
-1.89982 3.22361 3.58013 0.704528 -0.62048 -0.344447 71 73 66
-1.89956 3.22269 3.58298 0.704285 -0.608582 -0.365528 70 72 64
-1.86486 3.23094 3.60536 0.478806 -0.783892 -0.395296 73 77 82
-1.86687 3.22634 3.6037 0.377414 -0.873045 -0.30879 75 78 83
-1.85738 3.22226 3.59273 0.200547 -0.816706 -0.541085 73 76 81
-1.84862 3.22198 3.59859 0.135837 -0.97241 0.189648 72 76 81
-1.85275 3.23041 3.61063 -0.0652729 -0.973788 0.217891 74 78 83
-1.83698 3.22338 3.60413 0.293566 -0.950378 0.102964 70 74 79
-1.72865 3.21571 3.63891 0.557157 -0.829589 0.0368699 73 77 82
-1.71602 3.21779 3.64918 -0.478465 -0.659457 -0.579817 73 77 83
-1.68474 3.21534 3.6472 -0.518472 -0.841924 -0.149504 74 79 83
-1.68662 3.21807 3.6575 -0.37071 -0.917328 -0.145199 74 78 82
-1.67488 3.21604 3.65345 0.118641 -0.963523 -0.239891 92 99 98
-1.67864 3.21159 3.6495 -0.475124 -0.866459 -0.153318 82 89 89
-1.66611 3.21541 3.65901 -0.0754476 -0.951805 -0.297278 147 160 151
-1.65908 3.21022 3.66129 -0.00402364 -0.991646 -0.128929 164 181 166
-1.65785 3.2134 3.66357 0.198107 -0.972524 -0.122277 164 181 166
-1.62653 3.20945 3.66373 0.149141 -0.97214 -0.180832 168 185 167
-1.60363 3.21534 3.68204 -0.383452 -0.826798 -0.411546 166 179 162
-1.59211 3.2044 3.67935 -0.441293 -0.810915 -0.384289 166 179 160
-1.58829 3.20959 3.68188 0.11309 -0.92417 -0.364858 170 183 167
-1.57301 3.20721 3.68912 0.274966 -0.939685 0.203436 161 174 157
-1.50437 3.20356 3.70484 0.255974 -0.948331 -0.187471 165 174 155
-1.47136 3.19549 3.70629 0.403443 -0.900223 -0.163807 111 118 107
-1.42205 3.19944 3.72588 -0.0294568 -0.941797 -0.33489 223 225 219
-1.41582 3.18704 3.71817 -0.502285 -0.790874 -0.349612 239 241 237
-1.40662 3.18349 3.71965 -0.526648 -0.830303 -0.182315 225 227 222
-1.34069 3.24084 3.79939 -0.344532 -0.910578 -0.228353 180 178 168
-1.31806 3.24745 3.82832 -0.104262 -0.97125 -0.214017 182 183 172
-1.31823 3.24948 3.81722 0.601461 -0.739362 -0.302637 180 180 170
-1.29657 3.24682 3.82469 0.0878669 -0.969748 -0.227748 182 180 169
-1.27438 3.24302 3.83331 -0.127253 -0.986325 -0.104734 181 179 169
-1.26484 3.24049 3.8384 -0.566716 -0.82217 -0.0535615 168 168 159
-1.22674 3.24337 3.85548 0.109169 -0.925043 -0.363837 154 153 143
-1.2136 3.24591 3.8526 -0.0736533 -0.972816 0.219553 156 155 145
-1.21372 3.24629 3.86482 0.02122 -0.999087 -0.0370855 173 172 162
-1.20092 3.24662 3.85968 -0.0593724 -0.973787 0.219574 159 158 149
-1.1879 3.23999 3.85951 0.361583 -0.880036 -0.307888 172 170 161
-1.15802 3.2379 3.86847 -0.311336 -0.941575 0.128478 177 177 167
-1.16608 3.23859 3.87534 -0.21792 -0.97311 -0.0746165 181 179 169
-1.14667 3.23784 3.87557 -0.0513182 -0.959857 -0.275755 181 180 170
-1.13593 3.23713 3.88201 -0.248919 -0.938921 -0.237627 168 167 157
-1.13525 3.23594 3.88268 -0.158379 -0.963486 -0.215897 164 163 154
-1.12679 3.23606 3.87597 -0.263432 -0.934942 -0.237669 158 157 147
-1.11811 3.23169 3.88013 -0.284298 -0.93665 -0.204599 180 179 170
-1.10876 3.23032 3.87422 -0.256943 -0.952053 -0.166059 180 179 170
-1.08874 3.23679 3.89467 0.45231 -0.874277 -0.176223 180 178 168
-1.08004 3.23384 3.89938 -0.0793628 -0.86383 -0.497492 177 176 166
-1.06589 3.22608 3.8841 -0.497601 -0.753669 -0.42939 178 176 167
-1.05041 3.23612 3.90363 -0.318745 -0.921007 -0.223938 177 176 167
-1.0426 3.23905 3.91489 -0.144062 -0.610754 -0.778605 175 174 165
-1.03428 3.2341 3.91468 0.0113141 -0.96947 -0.24495 178 177 168
-1.02541 3.2367 3.92243 0.260809 -0.888948 -0.376497 178 177 168
-1.01654 3.23496 3.926 0.0859733 -0.933715 -0.347541 176 175 166
-1.01637 3.23672 3.92523 -0.521365 -0.803211 -0.28815 175 175 166
-1.00141 3.23717 3.92728 -0.00493398 -0.958928 -0.283606 163 162 154
-0.986811 3.23044 3.9314 -0.099548 -0.941518 -0.321921 161 159 151
-0.970403 3.23574 3.93084 0.163921 -0.689778 -0.70522 177 176 167
-0.977072 3.23582 3.93639 -0.19237 -0.756924 -0.624548 164 162 154
-0.936312 3.22861 3.93593 0.178637 -0.867964 -0.463387 153 153 144
-0.925535 3.22886 3.94999 -0.137968 -0.922953 -0.359337 176 177 169
-0.933826 3.22622 3.94442 0.16102 -0.930267 -0.329661 169 169 160
-0.912623 3.23025 3.95814 -0.0602512 -0.991742 0.113212 174 174 168
-0.903693 3.23004 3.96139 0.315468 -0.944576 0.0908661 174 174 167
-0.893343 3.23188 3.95475 -0.180946 -0.965794 -0.185743 166 167 160
-0.883403 3.22896 3.96013 0.0900035 -0.979556 -0.179916 141 140 135
-0.882137 3.23129 3.95963 0.165885 -0.969942 -0.178032 139 139 133
-2.50205 3.24087 3.37175 0.466485 -0.740452 -0.483863 97 103 97
-2.49935 3.24946 3.37194 -0.0580393 -0.959242 -0.276562 111 119 112
-2.49747 3.24565 3.38133 -0.240816 -0.916606 -0.319126 93 98 93
-2.49305 3.24972 3.37829 0.0236849 -0.990811 -0.133162 101 107 102
-2.4897 3.25266 3.38705 -0.250924 -0.953792 -0.165284 68 71 70
-2.47431 3.24521 3.3776 -0.25225 -0.953426 -0.165374 56 58 60
-2.3668 3.2149 3.3907 0.175119 -0.814587 -0.552975 121 119 115
-2.35636 3.21365 3.39392 -0.0849903 -0.84056 -0.53501 123 121 116
-2.28276 3.20507 3.40244 0.485526 -0.866829 -0.113459 100 100 98
-2.27935 3.20894 3.41135 -0.270597 -0.949393 -0.159469 124 124 120
-2.27108 3.20568 3.41598 -0.28149 -0.941051 -0.187578 139 140 136
-2.25525 3.22495 3.4354 0.13159 -0.969234 0.208015 129 132 125
-2.21504 3.21646 3.44959 -0.13277 -0.984826 -0.111756 159 168 159
-2.21336 3.22307 3.44873 0.027032 -0.998629 0.0448184 148 154 145
-2.19808 3.21158 3.44744 -0.184626 -0.971799 0.146699 165 175 164
-2.18768 3.20771 3.44091 0.0930543 -0.992562 0.0784954 155 164 154
-2.18011 3.20654 3.4487 0.110596 -0.961514 0.251514 157 169 158
-2.18373 3.21829 3.45448 -0.105882 -0.969211 0.222304 166 178 166
-2.1748 3.21932 3.46191 0.273675 -0.92818 0.252158 156 167 156
-2.17104 3.21147 3.45406 0.170486 -0.960643 0.219316 157 168 157
-2.16924 3.20956 3.45622 -0.0579812 -0.990822 0.12211 162 173 162
-2.15157 3.21139 3.45652 0.199143 -0.931405 0.304675 152 164 152
-2.15032 3.20961 3.46697 -0.193362 -0.981043 -0.0128529 156 168 156
-2.14078 3.20878 3.46159 -0.159063 -0.986773 -0.0312634 151 165 152
-2.13706 3.21413 3.47421 -0.265237 -0.958897 -0.10083 154 169 156
-2.13365 3.23316 3.49913 0.821233 -0.436117 -0.367938 152 167 155
-2.12555 3.23696 3.5063 0.687027 -0.550943 -0.473768 147 162 150
-2.10232 3.24364 3.51514 -0.141046 -0.566533 -0.811878 154 158 138
-2.09393 3.23573 3.51537 0.480246 -0.340914 -0.808172 146 132 110
-2.04697 3.23458 3.53167 -0.340997 -0.903773 -0.258679 74 80 80
-2.02284 3.24072 3.53829 0.668119 -0.733383 -0.125564 70 73 77
-1.97311 3.22124 3.54316 0.545979 -0.811074 -0.20992 62 65 68
-1.96397 3.21299 3.5329 0.559438 -0.791008 -0.247662 59 61 65
-1.95442 3.215 3.53986 0.560889 -0.766263 -0.31344 62 65 68
-1.94346 3.22052 3.55077 -0.182568 -0.983118 0.0121853 69 72 70
-1.93486 3.22082 3.55631 0.272902 -0.906684 -0.321635 83 81 65
-1.92632 3.22041 3.56155 0.217865 -0.908067 -0.3577 121 117 56
-1.92752 3.22245 3.55031 0.303537 -0.904667 -0.299072 78 81 82
-1.91765 3.22476 3.55748 0.294381 -0.85838 -0.420146 88 90 83
-1.91014 3.22393 3.56232 0.287669 -0.883809 -0.368956 91 93 81
-1.90009 3.22394 3.5682 0.389087 -0.828534 -0.402669 76 80 79
-1.89954 3.22645 3.57282 0.369451 -0.880677 -0.296504 75 79 79
-1.89151 3.22463 3.57436 0.333771 -0.92464 -0.183408 75 78 81
-1.89133 3.2214 3.57523 0.111965 -0.958887 -0.260769 75 78 81
-1.88277 3.22757 3.5812 0.223345 -0.970265 -0.0932927 81 84 87
-1.86708 3.23192 3.59506 0.443702 -0.834919 -0.325634 77 80 85
-1.86608 3.22778 3.57904 0.0303278 -0.98946 -0.141595 76 80 85
-1.84029 3.22645 3.59392 0.721589 -0.683314 -0.11132 70 74 79
-1.75833 3.21624 3.61899 0.00519384 -0.982328 0.187096 74 78 83
-1.73907 3.21617 3.62475 0.537504 -0.833801 0.125954 72 76 81
-1.71206 3.21989 3.63645 0.0479442 -0.961421 -0.270872 80 84 89
-1.70321 3.2224 3.632 0.0419264 -0.892122 -0.449845 74 79 84
-1.6828 3.21863 3.63675 -0.139695 -0.972294 -0.187428 73 78 82
-1.6657 3.21735 3.64831 0.00653169 -0.971759 -0.235884 132 145 140
-1.65703 3.21687 3.65398 0.0502147 -0.979341 -0.195883 146 163 151
-1.64821 3.21531 3.65864 0.0904677 -0.979749 -0.178629 153 172 156
-1.61477 3.20586 3.65936 -0.13627 -0.989485 0.0484716 164 179 163
-1.59914 3.21242 3.66151 0.844856 -0.475428 -0.245329 154 168 149
-1.58865 3.21287 3.67169 -0.357843 -0.925398 0.124848 175 187 173
-1.57816 3.21548 3.67895 0.275504 -0.911232 -0.306192 172 184 168
-1.53142 3.21316 3.68678 -0.0561053 -0.977999 -0.200921 166 178 163
-1.52435 3.20816 3.68918 0.0304239 -0.936198 -0.350153 159 171 154
-1.51557 3.20505 3.69362 0.391927 -0.870028 -0.299071 156 168 149
-1.5103 3.20254 3.68693 0.385274 -0.912367 -0.138386 153 165 147
-1.47744 3.19383 3.68657 0.00684914 -0.951814 -0.306601 133 140 128
-1.47141 3.19748 3.69558 0.412583 -0.89683 -0.159597 94 101 90
-1.46383 3.19618 3.69762 -0.376982 -0.924659 0.0537665 79 82 78
-1.44251 3.19208 3.69728 0.127091 -0.98621 0.106011 192 194 189
-1.43078 3.19462 3.70405 0.144933 -0.981001 0.128963 221 223 216
-1.42103 3.20053 3.71408 0.0664464 -0.963129 -0.260706 229 231 223
-1.42882 3.19746 3.71794 0.24474 -0.891579 -0.381037 221 224 217
-1.41019 3.18823 3.71087 -0.578445 -0.814668 -0.0414564 235 236 231
-1.40045 3.19052 3.71629 0.43329 -0.878709 -0.200328 220 221 214
-1.39293 3.19208 3.72143 -0.238439 -0.930733 -0.277277 205 206 199
-1.38538 3.18997 3.71395 0.0695328 -0.971915 -0.224827 197 198 190
-1.34949 3.24476 3.79388 0.330151 -0.933292 -0.141305 177 175 165
-1.34242 3.24639 3.7912 0.248344 -0.96579 -0.0746644 180 177 167
-1.27534 3.24284 3.82053 -0.460012 -0.887487 0.0275075 176 177 167
-1.26504 3.23871 3.81549 -0.258279 -0.935319 -0.241807 176 176 168
-1.24451 3.23737 3.81704 -0.165013 -0.966335 -0.197404 177 178 168
-1.25385 3.23799 3.82294 -0.138086 -0.966402 -0.216792 140 140 131
-1.24069 3.24032 3.8323 0.178589 -0.975293 -0.130037 178 178 169
-1.2332 3.23948 3.83325 -0.0279306 -0.981524 0.189291 179 179 170
-1.22284 3.24322 3.83119 -0.143063 -0.987741 -0.0624515 183 181 171
-1.22658 3.24437 3.84441 -0.0546778 -0.983759 -0.170962 176 174 165
-1.21149 3.24582 3.84058 -0.115248 -0.990629 0.0732974 180 179 169
-1.19789 3.2478 3.84879 -0.0346728 -0.97796 0.205894 173 172 162
-1.18845 3.24257 3.84893 0.210601 -0.964672 -0.158285 168 166 156
-1.17796 3.24802 3.8581 0.443348 -0.84905 -0.287326 159 159 149
-1.15906 3.24082 3.85693 -0.09242 -0.992463 -0.0804784 159 157 148
-1.15801 3.24273 3.85747 -0.13453 -0.971025 0.197514 158 157 147
-1.15912 3.25251 3.86832 0.0111536 -0.92295 -0.384759 162 161 153
-1.14753 3.2403 3.86425 -0.061277 -0.946916 -0.315588 175 174 164
-1.1411 3.2466 3.867 -0.464662 -0.876374 -0.126722 170 170 160
-1.13667 3.24125 3.85984 -0.592096 -0.777191 -0.213067 158 158 149
-1.13859 3.23743 3.86869 -0.190013 -0.959533 -0.207824 175 175 166
-1.10494 3.23663 3.86722 0.160142 -0.944513 -0.286792 179 178 168
-1.077 3.23354 3.88425 -0.121458 -0.85669 -0.501329 178 176 167
-1.06793 3.23559 3.87933 -0.0752087 -0.85857 -0.50715 177 176 167
-1.04235 3.24558 3.90645 -0.195659 -0.976845 0.086556 179 176 167
-1.03107 3.23607 3.9055 -0.480438 -0.854061 -0.199394 180 178 169
-1.03033 3.23879 3.89799 0.0420402 -0.988602 -0.144567 179 178 169
-1.02112 3.23897 3.90003 0.196201 -0.967983 -0.156568 179 178 170
-1.0214 3.23852 3.90116 0.412236 -0.898049 -0.153527 180 179 170
-1.01689 3.24088 3.90297 -0.152859 -0.963428 -0.220091 179 179 170
-1.00781 3.23696 3.90896 -0.0406748 -0.969685 -0.240951 155 155 147
-1.00683 3.23941 3.90646 -0.215023 -0.943027 -0.253901 154 153 145
-1.00745 3.23602 3.90325 -0.535102 -0.832429 -0.143976 152 152 144
-1.00208 3.23754 3.91492 0.12422 -0.964863 -0.231535 156 155 147
-0.981052 3.24262 3.91874 -0.49933 -0.85903 -0.112863 178 177 168
-0.972316 3.23557 3.91776 0.0507976 -0.944081 -0.325778 177 177 167
-0.962158 3.23471 3.92372 -0.0240208 -0.911222 -0.411214 178 178 169
-0.953779 3.23209 3.92686 0.261073 -0.905771 -0.333797 176 176 167
-0.945215 3.22999 3.93107 0.194577 -0.877866 -0.437598 169 169 160
-0.93661 3.23403 3.92755 0.196558 -0.877682 -0.437081 177 177 168
-0.926334 3.23683 3.93502 0.0764564 -0.519122 -0.851273 174 174 165
-0.918041 3.23089 3.93785 -0.0202376 -0.662686 -0.748624 155 155 147
-0.892454 3.23503 3.94419 -0.614112 -0.769361 -0.175928 149 149 143
-0.884219 3.23031 3.94781 0.0773813 -0.98407 -0.160058 136 136 130
